570.966,-46.4418,-940.461
580.009,-62.2661,-1055.35
580.237,-85.6775,-1022.49
580.003,-35.3382,-1058.38
580.151,-10.8758,-1030.75
580.972,5.2975,-980.051
582.864,8.34901,-920.219
585.382,-3.78777,-867.457
587.296,-28.6133,-835.599
587.487,-58.9609,-832.68
585.836,-85.4286,-859.423
583.327,-100.188,-909.122
581.25,-99.8197,-968.844
610.936,-72.6094,-1132.3
610.288,-112.268,-1079.63
611.036,-28.0862,-1137.15
610.373,13.0302,-1092.87
610.67,41.9104,-1011.53
613.567,49.3587,-915.813
618.439,29.6394,-832.106
622.447,-14.2623,-803.813
622.854,-69.0443,-810.126
619.374,-116.177,-819.445
614.41,-140.814,-898.137
611.002,-138.004,-993.565
653.469,-97.4305,-1171.55
653.531,-122.507,-1173.28
657.365,-80.2471,-1250.79
654.117,-52.751,-1188.35
656.255,-26.6058,-1232.14
653.948,-1.48674,-1184.21
654.958,19.6512,-1284.39
651.957,38.3111,-1113.6
651.63,60.0871,-1086.04
654.193,71.1296,-938.766
675.736,57.8291,-839.249
680.313,-12.778,-783.565
681.266,-74.7612,-774.172
676.597,-124.946,-812.818
655.148,-158.257,-918.038
651.581,-148.571,-1077.65
651.708,-129.094,-1094.92
656.158,-133.938,-1230.41
659.765,-113.487,-1285.69
661.951,-74.4716,-1349.41
662.162,-6.11449,-1315.57
657.671,52.0849,-1217.01
528.132,-46.4418,-952.074
537.175,-62.2661,-1044.8
537.403,-85.6775,-1018.28
537.169,-35.3382,-1047.24
537.318,-10.8758,-1024.94
538.138,5.2975,-984.026
540.03,8.34901,-935.737
542.548,-3.78777,-893.155
544.462,-28.6133,-867.443
544.653,-58.9609,-865.087
543.002,-85.4286,-886.671
540.493,-100.188,-926.781
538.416,-99.8197,-974.981
568.101,-72.6094,-1106.9
567.454,-112.268,-1064.39
568.202,-28.0862,-1110.81
567.539,13.0302,-1075.07
567.836,41.9104,-1009.43
570.733,49.3587,-932.181
575.605,29.6394,-864.624
579.613,-14.2623,-824.237
580.02,-69.0443,-820.556
576.54,-116.177,-854.405
571.576,-140.814,-917.916
568.168,-138.004,-994.933
610.634,-97.4305,-1138.58
610.697,-122.507,-1139.97
614.531,-80.2471,-1202.53
611.283,-52.751,-1152.14
613.421,-26.6058,-1187.47
611.114,-1.48674,-1148.79
612.124,21.9213,-1167.35
609.123,38.3111,-1091.81
608.796,78.2482,-1078.65
611.359,71.1296,-950.706
632.902,57.8291,-843.702
622.208,-3.69743,-815.99
623.16,-74.7612,-802.972
633.763,-138.567,-832.926
612.313,-158.257,-933.976
608.747,-162.192,-1074.15
608.874,-129.094,-1076.74
613.324,-133.938,-1186.08
616.931,-99.8661,-1230.69
619.117,-49.5,-1252.81
619.328,-6.11449,-1254.81
614.837,33.9237,-1206.42
1850.41,-60.1036,-1048.29
1617.97,39.7338,-1127.05
1611.2,62.3744,-1076.52
1585.21,84.4424,-1020.44
1607.98,37.9393,-969.841
1609.78,-13.087,-934.677
1599.04,-67.3005,-921.937
1598.29,-115.548,-934.223
1578.09,-162.666,-969.181
1558.86,-187.306,-1019.91
1612.85,-163.385,-1076.3
1614.07,-142.876,-1127.1
1616.27,-105.846,-1162.19
1619.01,-59.6308,-1174.65
1621.76,-13.3828,-1162.08
1467.28,80.2494,-1163.66
1481.49,137.438,-1102.64
1483.5,137.57,-994.679
1995.87,97.3819,-973.113
1938,160.268,-932.284
1974.66,81.0217,-934.135
2020.74,42.3371,-977.646
1997.73,16.2419,-933.927
2029.29,-18.0617,-975.456
2004.86,-77.5984,-933.063
2025.3,-82.2332,-970.324
1991.83,-169.141,-930.055
2022.23,-139.343,-971.043
1958.94,-241.216,-924.155
2002.27,-195.116,-966.21
1919.43,-292.342,-920.666
1979.59,-224.282,-963.039
1453.25,-244.805,-993.433
1453.24,-244.937,-1102.42
1455.44,-207.98,-1164.23
1459.41,-141.256,-1211.13
1466.35,-57.9781,-1234.97
1469.31,25.3579,-1210.53
1252.01,131.854,-1219.01
1254.76,178.234,-1122.46
1254.77,178.399,-975.127
1252.03,132.315,-842.07
1509.3,70.6209,-897.2
1257.83,49.1106,-760.098
1523.33,15.8934,-829.326
1240.92,-54.7347,-731.565
1526.38,-63.385,-804.564
1234.74,-158.653,-763.583
1513.43,-140.722,-828.074
1229.79,-242.062,-839.473
1483.46,-201.613,-895.458
1227.03,-288.442,-973.327
1227.02,-288.606,-1122.25
1229.76,-242.522,-1220
1249.39,-159.318,-1239.74
1255.56,-55.4727,-1272.21
1261.73,48.4457,-1238.75
1003.97,134.716,-1239.05
1006.72,181.096,-1129.64
1006.73,181.261,-968.035
1003.99,135.177,-822.102
1001.73,51.9725,-739.263
995.562,-51.8727,-707.53
984.018,-155.791,-737.335
981.745,-239.2,-819.427
978.989,-285.58,-966.139
978.979,-285.744,-1129.35
984.25,-239.66,-1234.6
1001.35,-156.456,-1268.63
1007.52,-52.6107,-1304.29
1013.69,51.3077,-1267.68
841.592,100.266,-1192.6
803.289,137.459,-1113.42
780.508,137.591,-978.744
778.312,100.635,-852.332
768.977,33.9101,-777.835
769.397,-49.3673,-751.254
756.391,-132.703,-789.91
760.47,-199.592,-850.416
758.259,-236.786,-977.281
803.829,-236.918,-1109.41
838.942,-199.961,-1189.42
789.224,-133.236,-1215.23
784.044,-49.959,-1255.2
788.997,33.3769,-1223.67
690.572,35.3253,-1159.59
689.267,55.9663,-1085.9
620.904,56.0395,-1007.66
619.686,35.5303,-933.86
617.485,-1.49915,-882.621
614.739,-47.7146,-864.116
611.99,-93.9627,-882.089
609.784,-131.083,-933.06
608.557,-151.724,-1006.95
687.048,-151.797,-1089.08
728.78,-131.288,-1148.77
669.446,-94.2585,-1170.97
665.361,-48.043,-1173.08
670.387,-1.795,-1172.36
559.535,-47.2421,-1048.29
1611.47,-269.097,-1061.4
1423.87,-289.967,-1017.66
1537.26,-294.595,-1068.98
1449.44,-239.246,-966.705
1249.47,-241.722,-919.1
1245.1,-304.531,-992.297
1252.16,-344.065,-1078.42
1450.98,-319.672,-1093.89
1378.63,-324.52,-1107.08
1054.5,-227.927,-906.979
1050.02,-294.115,-988.471
1056.94,-337.403,-1061.99
1143.68,-339.504,-1183.49
1023.55,-318.549,-1136.13
1251.57,-342.206,-1172.42
1159.88,-340.001,-1129.11
880.894,-206.331,-938.218
877.214,-261.831,-1009.51
903.427,-297.594,-1057.04
919.852,-297.121,-1156.84
1021.72,-336.31,-1192.57
762.972,-182.989,-1010.99
760.898,-214.706,-1052.81
802.233,-237.804,-1085.94
851.828,-242.978,-1134.24
1822.57,-283.513,-973.977
1334.4,-330.35,-1126.21
1290.18,-336.18,-1145.35
1540.96,-322.814,-1093.89
1493.16,-321.145,-1127.6
1386.31,-317.413,-1159.34
1332.88,-315.548,-1175.2
1209.16,-311.227,-1200.99
1119.18,-308.085,-1206.94
1698.03,-279.163,-1035.99
1465.3,264.09,-998.638
1352.21,254.66,-925.833
1541.56,226.648,-987.883
1172.19,273.213,-889.855
1181.5,177.278,-786.016
1381.79,177.646,-853.55
1176.14,333.803,-1012.03
1377,300.637,-1033.98
1304.23,306.547,-1052.68
977.804,253.238,-884.428
987.493,152.139,-768.821
981.332,319.563,-988.73
949.401,290.045,-1093.9
1067.95,324.576,-1161.09
1084.13,325.673,-1083.94
1175.7,330.948,-1145.39
807.434,200.292,-914.278
815.48,115.518,-813.137
830.852,255.514,-981.705
946.174,317.161,-1173.97
847.323,255.131,-1123.28
694.753,125.829,-975.696
699.322,77.3818,-916.374
734.297,162.002,-1022.7
783.516,170.942,-1091.22
1751.66,253.071,-863.867
1214.8,322.536,-1106.98
1259.51,314.541,-1079.83
1466.79,307.309,-1033.98
1419.09,303.765,-1081.81
1312.47,295.841,-1126.82
1259.16,291.88,-1149.33
1135.7,282.705,-1185.91
1045.91,276.033,-1194.35
1627.38,243.835,-951.834
1537.26,185.147,-1068.98
1423.87,180.519,-1017.66
1611.47,159.649,-1061.4
1245.1,195.082,-992.297
1249.47,132.273,-919.1
1449.44,129.798,-966.705
1252.16,234.617,-1078.42
1450.98,210.223,-1093.89
1378.63,215.071,-1107.08
1050.02,184.667,-988.471
1054.5,118.478,-906.979
1056.94,227.954,-1061.99
1023.55,209.101,-1136.13
1143.68,230.055,-1183.49
1159.88,230.553,-1129.11
1251.57,232.758,-1172.42
877.214,152.383,-1009.51
880.894,96.8829,-938.218
903.427,188.146,-1057.04
1021.72,226.862,-1192.57
919.852,187.672,-1156.84
760.898,105.257,-1052.81
762.972,73.5405,-1010.99
802.233,128.356,-1085.94
851.828,133.53,-1134.24
1822.57,174.064,-973.977
1290.18,226.731,-1145.35
1334.4,220.901,-1126.21
1540.96,213.365,-1093.89
1493.16,211.696,-1127.6
1386.31,207.965,-1159.34
1332.88,206.099,-1175.2
1209.16,201.779,-1200.99
1119.18,198.637,-1206.94
1698.03,169.715,-1035.99
1541.56,-336.096,-987.883
1352.21,-364.108,-925.833
1465.3,-373.538,-998.638
1381.79,-287.094,-853.55
1181.5,-286.726,-786.016
1172.19,-382.662,-889.855
1176.14,-443.251,-1012.03
1377,-410.085,-1033.98
1304.23,-415.995,-1052.68
987.493,-261.587,-768.821
977.804,-362.687,-884.428
981.332,-429.012,-988.73
1067.95,-434.024,-1161.09
949.401,-399.493,-1093.9
1175.7,-440.396,-1145.39
1084.13,-435.121,-1083.94
815.48,-224.966,-813.137
807.434,-309.741,-914.278
830.852,-364.962,-981.705
847.323,-364.579,-1123.28
946.174,-426.61,-1173.97
699.322,-186.83,-916.374
694.753,-235.278,-975.696
734.297,-271.45,-1022.7
783.516,-280.39,-1091.22
1751.66,-362.519,-863.867
1259.51,-423.99,-1079.83
1214.8,-431.985,-1106.98
1466.79,-416.758,-1033.98
1419.09,-413.213,-1081.81
1312.47,-405.29,-1126.82
1259.16,-401.328,-1149.33
1135.7,-392.153,-1185.91
1045.91,-385.481,-1194.35
1627.38,-353.284,-951.834
1091.49,-249.923,-1441.02
1177.07,-227.231,-1402.59
1167.86,-294.851,-1402.75
1135.77,-172.904,-1403.31
1068.16,-163.693,-1404.49
1013.84,-204.995,-1405.44
1004.63,-272.615,-1405.6
1045.93,-326.943,-1404.88
1113.54,-336.153,-1403.7
1211.22,-217.832,-1312.81
1198.2,-313.461,-1313.04
1152.82,-141.001,-1313.83
1057.21,-127.976,-1315.5
980.388,-186.386,-1316.84
967.364,-282.015,-1317.07
1025.77,-358.845,-1316.05
1121.38,-371.871,-1314.38
1173.95,-227.231,-1224.29
1164.74,-294.851,-1224.45
1132.66,-172.904,-1225.01
1065.05,-163.693,-1226.19
1010.73,-204.995,-1227.14
1001.52,-272.615,-1227.3
1042.82,-326.943,-1226.57
1110.43,-336.153,-1225.39
1087.09,-249.923,-1188.86
1067.09,-235.66,-2942.65
1107.21,-212.2,-2940.9
1114.03,-247.008,-2942.69
1094.15,-276.384,-2944.48
1059.22,-283.121,-2945.22
1029.7,-263.271,-2944.48
1022.88,-228.463,-2942.69
1042.76,-199.087,-2940.9
1077.69,-192.351,-2940.16
1479.29,-153.171,-3002.37
1480.28,-153.475,-2998.15
1481.03,-157.097,-2998.25
1479.82,-155.732,-3002.45
1132.06,-255.02,-2915.13
1103.95,-296.564,-2917.66
1054.55,-306.09,-2918.71
852.562,-549.85,-3025.69
851.099,-557.044,-3025.42
844.383,-552.529,-3025.42
847.814,-546.657,-3025.69
625.299,-314.094,-3031.03
622.886,-319.296,-3028.28
621.945,-314.496,-3028.26
624.635,-310.7,-3031.01
705.301,22.8683,-3007.72
703.037,18.9861,-3007.47
705.146,22.1019,-3007.46
706.792,25.0715,-3007.71
1031.27,-187.249,-2912.6
1080.67,-177.722,-2911.55
1122.42,-205.794,-2912.6
1105.52,-220.541,-2885.78
1112.34,-255.349,-2887.57
1092.46,-284.725,-2889.37
1057.53,-291.461,-2890.11
1028,-271.612,-2889.37
1012.8,-278.019,-2917.66
1021.18,-236.804,-2887.57
1003.15,-228.793,-2915.13
1041.06,-207.427,-2885.78
1075.99,-200.691,-2885.04
1066.41,-247.804,-2876.16
847.083,-292.308,-2990.88
830.182,-307.056,-2964.07
820.536,-257.83,-2961.54
840.264,-257.501,-2989.09
863.266,-113.576,-2982.65
843.539,-113.905,-2955.1
871.651,-72.3608,-2952.56
883.144,-84.1992,-2980.86
959.527,-426.113,-2995.31
954.854,-449.083,-2968.8
913.103,-421.011,-2967.75
930.004,-406.264,-2994.57
1297.16,-169.236,-2980.47
1312.37,-162.829,-2952.18
1322.01,-212.055,-2954.71
1303.98,-204.044,-2982.26
1095.74,-249.354,-2895.63
1098.54,-233.143,-2895.63
1109.38,-233.143,-2067.9
1106.57,-249.354,-2067.9
1085.9,-222.61,-2895.63
1096.74,-222.61,-2067.9
1070.46,-228.29,-2895.63
1081.3,-228.29,-2067.9
1067.66,-244.501,-2895.63
1078.5,-244.501,-2067.9
1080.3,-255.034,-2895.63
1091.13,-255.034,-2067.9
1090.36,-303.038,-2030.59
1118.01,-285.038,-2063.77
1133.37,-285.038,-2034.5
1123.54,-285.038,-2002.94
1094.27,-285.038,-1987.58
1062.71,-285.038,-1997.41
1047.34,-285.038,-2026.68
1057.18,-285.038,-2058.24
1086.45,-285.038,-2073.6
1129.46,-241.585,-2077.51
1151.18,-241.585,-2036.12
1137.28,-241.585,-1991.49
1095.89,-241.585,-1969.76
1051.25,-241.585,-1983.67
1029.53,-241.585,-2025.06
1043.43,-241.585,-2069.69
1084.83,-241.585,-2091.42
1118.01,-198.131,-2063.77
1133.37,-198.131,-2034.5
1123.54,-198.131,-2002.94
1094.27,-198.131,-1987.58
1062.71,-198.131,-1997.41
1047.34,-198.131,-2026.68
1057.18,-198.131,-2058.24
1086.45,-198.131,-2073.6
1090.36,-180.131,-2030.59
1095.74,-249.354,-2020.92
1098.54,-233.143,-2020.92
1109.38,-233.143,-1193.2
1106.57,-249.354,-1193.2
1085.9,-222.61,-2020.92
1096.74,-222.61,-1193.2
1070.46,-228.29,-2020.92
1081.3,-228.29,-1193.2
1067.66,-244.501,-2020.92
1078.5,-244.501,-1193.2
1080.3,-255.034,-2020.92
1091.13,-255.034,-1193.2
1114.03,139.132,-2942.69
1107.21,104.324,-2940.9
1067.09,127.784,-2942.65
1094.15,168.508,-2944.48
1059.22,175.245,-2945.22
1029.7,155.395,-2944.48
1022.88,120.587,-2942.69
1042.76,91.2108,-2940.9
1077.69,84.4747,-2940.16
1481.03,49.2209,-2998.25
1480.28,45.5992,-2998.15
1479.29,45.2951,-3002.37
1479.82,47.8561,-3002.45
1103.95,188.688,-2917.66
1132.06,147.143,-2915.13
1054.55,198.214,-2918.71
844.383,444.653,-3025.42
851.099,449.168,-3025.42
852.562,441.974,-3025.69
847.814,438.781,-3025.69
621.945,206.62,-3028.26
622.886,211.419,-3028.28
625.299,206.218,-3031.03
624.635,202.824,-3031.01
705.146,-129.978,-3007.46
703.037,-126.862,-3007.47
705.301,-130.744,-3007.72
706.792,-132.948,-3007.71
1080.67,69.8458,-2911.55
1031.27,79.3725,-2912.6
1122.42,97.9176,-2912.6
1112.34,147.473,-2887.57
1105.52,112.665,-2885.78
1092.46,176.849,-2889.37
1057.53,183.585,-2890.11
1028,163.735,-2889.37
1012.8,170.142,-2917.66
1021.18,128.928,-2887.57
1003.15,120.917,-2915.13
1041.06,99.5514,-2885.78
1075.99,92.8153,-2885.04
1066.41,139.928,-2876.16
847.083,184.432,-2990.88
830.182,199.18,-2964.07
820.536,149.954,-2961.54
840.264,149.625,-2989.09
863.266,5.69951,-2982.65
843.539,6.02884,-2955.1
871.651,-35.5153,-2952.56
883.144,-23.677,-2980.86
959.527,318.237,-2995.31
954.854,341.207,-2968.8
913.103,313.135,-2967.75
930.004,298.387,-2994.57
1297.16,61.3599,-2980.47
1312.37,54.9531,-2952.18
1322.01,104.179,-2954.71
1303.98,96.168,-2982.26
1109.38,131.005,-2067.9
1098.54,131.005,-2895.63
1095.74,147.217,-2895.63
1106.57,147.217,-2067.9
1096.74,120.473,-2067.9
1085.9,120.473,-2895.63
1081.3,126.152,-2067.9
1070.46,126.152,-2895.63
1078.5,142.364,-2067.9
1067.66,142.364,-2895.63
1091.13,152.896,-2067.9
1080.3,152.896,-2895.63
1133.37,182.901,-2034.5
1090.36,77.9934,-2030.59
1086.45,95.9934,-2073.6
1123.54,182.901,-2002.94
1094.27,182.901,-1987.58
1062.71,182.901,-1997.41
1047.34,182.901,-2026.68
1057.18,182.901,-2058.24
1086.45,182.901,-2073.6
1151.18,139.447,-2036.12
1129.46,139.447,-2077.51
1137.28,139.447,-1991.49
1095.89,139.447,-1969.76
1051.25,139.447,-1983.67
1029.53,139.447,-2025.06
1043.43,139.447,-2069.69
1084.83,139.447,-2091.42
1133.37,95.9934,-2034.5
1118.01,95.9934,-2063.77
1123.54,95.9934,-2002.94
1094.27,95.9934,-1987.58
1062.71,95.9934,-1997.41
1047.34,95.9934,-2026.68
1057.18,95.9934,-2058.24
1091.49,132.715,-1450.36
1177.07,155.407,-1411.92
1167.86,87.7866,-1412.08
1135.77,209.734,-1412.64
1068.16,218.945,-1413.82
1013.84,177.643,-1414.77
1004.63,110.023,-1414.93
1045.93,55.6952,-1414.21
1113.54,46.4848,-1413.03
1211.22,164.806,-1322.15
1198.2,69.177,-1322.37
1152.82,241.637,-1323.17
1057.21,254.662,-1324.84
980.388,196.252,-1326.18
967.364,100.623,-1326.4
1025.77,23.7927,-1325.38
1121.38,10.7672,-1323.72
1173.95,155.407,-1233.62
1164.74,87.7866,-1233.78
1132.66,209.734,-1234.34
1065.05,218.945,-1235.52
1010.73,177.643,-1236.47
1001.52,110.023,-1236.63
1042.82,55.6952,-1235.91
1110.43,46.4848,-1234.73
1087.09,132.715,-1198.2
1109.38,131.005,-1193.2
1098.54,131.005,-2020.92
1095.74,147.217,-2020.92
1106.57,147.217,-1193.2
1096.74,120.473,-1193.2
1085.9,120.473,-2020.92
1081.3,126.152,-1193.2
1070.46,126.152,-2020.92
1078.5,142.364,-1193.2
1067.66,142.364,-2020.92
1091.13,152.896,-1193.2
1080.3,152.896,-2020.92
-0.217163,-122.341,38.2749
11.9798,-139.285,-68.0352
79.9849,-122.341,-58.2795
-65.921,-139.285,51.9047
51.6713,-139.285,-92.7585
80.3662,-139.285,-85.2238
-40.5735,-138.497,201.009
45.4692,-160.982,131.001
-21.366,-47.4128,207.17
71.5782,-47.4128,135.59
150.653,-63.5688,42.8855
130.795,-185.267,37.7003
210.707,-205.954,-24.9538
237.34,-77.0321,-21.2859
-24.4996,-177.138,96.6306
21.4768,-177.138,107.977
-26.0212,-154.652,210.71
55.1621,-201.423,-8.31303
94.2131,-201.423,5.35941
122.518,-222.11,-85.8659
164.35,-222.11,-68.5033
3.78931,-160.982,97.6358
26.6314,-160.982,124.282
89.1146,-185.267,4.33523
111.957,-185.267,30.9818
169.027,-205.954,-58.3189
191.869,-205.954,-31.6724
-186.072,-94.8523,214.896
-171.893,-101.588,228.716
-199.2,-79.3156,245.518
-159.539,-101.314,267.138
-135.528,-101.588,249.206
-106.495,-132.739,276.427
-95.3262,-101.588,237.98
-56.3546,-166.26,247.853
-245.123,-74.32,214.854
-222.944,-104.284,268.753
-258.75,-10.4031,268.034
-284.452,-10.4031,243.446
-195.986,-10.4031,306.217
-139.893,-118.675,299.633
-111.216,-10.4031,322.781
-56.4958,-133.966,285.677
-26.4668,-10.4031,308.599
51.33,-154.652,236.884
83.1888,-10.4031,259.499
168.133,-177.138,181.463
201.981,-10.4031,203.746
-74.8368,-101.588,201.615
-31.7086,-171.597,227.334
-11.2192,-171.597,190.969
-22.4448,-171.597,150.767
-86.0624,-101.588,161.413
-58.8096,-171.597,130.278
-122.427,-101.588,140.924
326.572,-10.4031,121.398
290.576,-201.423,99.4749
398.402,-222.11,50.6818
436.228,-23.1789,72.2989
-6.09058,-154.652,88.763
47.7455,-154.652,150.46
110.712,-177.138,33.3428
152.137,-177.138,69.816
249.545,-201.423,-32.2777
282.558,-201.423,2.87305
360.916,-222.11,-76.2038
394.817,-222.11,-35.7415
130.19,-177.138,132.145
148.668,-177.138,168.639
252.633,-201.423,50.156
271.111,-201.423,86.6503
360.459,-222.11,1.3629
378.937,-222.11,37.8572
-18.2114,-122.341,21.8768
-6.0144,-139.285,-84.4333
61.9906,-122.341,-74.6776
-83.9153,-139.285,35.5066
33.677,-139.285,-109.157
62.3719,-139.285,-101.622
25.6485,-122.341,60.2877
37.8454,-139.285,-46.0224
105.851,-122.341,-36.2668
-40.0554,-139.285,73.9174
77.5369,-139.285,-70.7457
106.232,-139.285,-63.2111
-92.3032,-101.588,81.6598
-112.984,-101.588,102.639
60.337,-129.477,215.883
182.66,-44.8696,153.671
70.8922,-50.2549,233.873
167.548,-144.521,136.443
262.398,-157.337,89.8216
279.13,-47.5622,106.778
25.7153,-129.477,166.008
132.926,-144.521,86.5687
42.8093,-129.477,202.734
150.02,-144.521,123.295
227.776,-157.337,39.9469
244.87,-157.337,76.6729
79.9849,88.7586,-58.2795
11.9798,105.703,-68.0352
-0.217163,88.7586,38.2749
-65.921,105.703,51.9047
51.6713,105.703,-92.7585
80.3662,105.703,-85.2238
-30.1321,13.8308,219.028
43.3925,127.4,149.293
-48.6953,104.915,211.134
68.9719,13.8308,156.252
156.198,29.9868,71.1718
136.897,151.685,64.1913
222.207,172.372,9.11221
248.393,43.4501,15.2017
-35.0916,121.07,222.126
21.6074,143.556,124.171
-23.1379,143.556,108.665
65.7921,167.841,11.4505
103.428,167.841,28.6388
139.962,188.528,-59.6138
180.03,188.528,-38.4963
25.2484,127.4,140.879
4.94031,127.4,112.254
98.4448,151.685,27.1524
118.753,151.685,55.7773
183.755,172.372,-27.9267
204.063,172.372,0.698105
-199.2,45.7336,245.518
-171.893,68.0061,228.716
-186.072,61.2704,214.896
-159.539,67.7316,267.138
-135.528,68.0061,249.206
-106.495,99.1573,276.427
-95.3262,68.0061,237.98
-56.3546,132.678,247.853
-245.123,40.738,214.854
-222.944,70.7023,268.753
-139.893,85.0932,299.633
-56.4958,100.384,285.677
51.33,121.07,236.884
168.133,143.556,181.463
-74.8368,68.0061,201.615
-31.7086,138.015,227.334
-11.2192,138.015,190.969
-22.4448,138.015,150.767
-86.0624,68.0061,161.413
-58.8096,138.015,130.278
-122.427,68.0061,140.924
290.576,167.841,99.4749
398.402,188.528,50.6818
436.228,-10.4031,72.2989
47.7455,121.07,150.46
-6.09058,121.07,88.763
110.712,143.556,33.3428
152.137,143.556,69.816
249.545,167.841,-32.2777
282.558,167.841,2.87305
360.916,188.528,-76.2038
394.817,188.528,-35.7415
148.668,143.556,168.639
130.19,143.556,132.145
252.633,167.841,50.156
271.111,167.841,86.6503
360.459,188.528,1.3629
378.937,188.528,37.8572
61.9906,88.7586,-74.6776
-6.0144,105.703,-84.4333
-18.2114,88.7586,21.8768
-83.9153,105.703,35.5066
33.677,105.703,-109.157
62.3719,105.703,-101.622
105.851,88.7586,-36.2668
37.8454,105.703,-46.0224
25.6485,88.7586,60.2877
-40.0554,105.703,73.9174
77.5369,105.703,-70.7457
106.232,105.703,-63.2111
-112.984,68.0061,102.639
-92.3032,68.0061,81.6598
70.8922,16.6729,233.873
182.66,11.2876,153.671
60.337,95.8948,215.883
167.548,110.939,136.443
262.398,123.755,89.8216
279.13,13.9803,106.778
42.8093,95.8948,202.734
132.926,110.939,86.5687
25.7153,95.8948,166.008
150.02,110.939,123.295
227.776,123.755,39.9469
244.87,123.755,76.6729
-643.746,-12.9011,87.8015
-758.001,-12.9011,35.9063
-632.369,-42.4329,65.2172
-620.484,-58.4809,48.2736
-632.369,8.85094,65.2172
-620.484,24.8989,48.2736
-285.165,-97.8147,138.921
-297.415,-12.9011,226.543
-371.149,-12.9011,198.032
-404.878,-77.5603,124.501
-492.087,-12.9011,148.738
-487.011,-65.4939,107.881
-564.418,-12.9011,117.684
-556.671,-54.4994,85.094
-548.093,-73.5724,70.2197
-513.135,-79.0696,77.5807
-440.879,-93.8343,87.938
-276.172,-124.226,111.4
-360.914,-109.551,99.2627
-191.863,-105.469,160.083
-195.265,-94.8523,190.71
-257.236,-74.32,188.584
-155.006,-137.318,104.742
-137.567,-116.085,141.519
-399.955,-102.566,91.5584
-476.088,-87.801,85.8676
-285.165,64.2327,138.921
-404.878,43.9783,124.501
-487.011,31.9119,107.881
-556.671,20.9174,85.094
-548.093,39.9904,70.2197
-513.135,45.4876,77.5807
-440.879,60.2523,87.938
-360.914,75.9688,99.2627
-276.172,90.6436,111.4
-195.265,61.2704,190.71
-191.863,71.8868,160.083
-257.236,40.738,188.584
-137.567,82.5033,141.519
-155.006,103.736,104.742
-399.955,68.9837,91.5584
-476.088,54.219,85.8676
-543.152,-76.4894,62.3718
-470.88,-93.9523,77.6461
-397.619,-111.415,81.5109
-342.953,-125.385,91.2116
-272.893,-134.481,97.6715
-126.66,-137.061,196.044
-110.57,-126.671,176.8
-101.676,-126.671,193.813
-107.416,-126.671,212.133
-124.429,-126.671,221.028
-142.749,-126.671,215.287
-151.644,-126.671,198.274
-145.903,-126.671,179.954
-128.89,-126.671,171.06
-153.874,-101.588,173.29
-161.992,-101.588,199.198
-149.413,-101.588,223.258
-129.814,-101.588,160.711
-103.906,-101.588,168.829
-91.3268,-101.588,192.889
-99.4452,-101.588,218.797
-123.505,-101.588,231.376
-543.152,42.9074,62.3718
-470.88,60.3703,77.6461
-397.619,77.8331,81.5109
-342.953,91.8034,91.2116
-272.893,100.899,97.6715
-101.676,93.0895,193.813
-110.57,93.0895,176.8
-126.66,103.479,196.044
-107.416,93.0895,212.133
-124.429,93.0895,221.028
-142.749,93.0895,215.287
-151.644,93.0895,198.274
-145.903,93.0895,179.954
-128.89,93.0895,171.06
-153.874,68.0061,173.29
-161.992,68.0061,199.198
-149.413,68.0061,223.258
-129.814,68.0061,160.711
-103.906,68.0061,168.829
-91.3268,68.0061,192.889
-99.4452,68.0061,218.797
-123.505,68.0061,231.376
-88.8383,34.7158,69.9514
-170.054,34.0347,82.6771
-85.1199,55.9117,87.3593
-171.76,50.5516,100.703
-95.1863,67.7838,97.0216
-173.303,56.9649,109.394
-123.411,-17.3371,14.6088
-204.627,-18.0182,27.3345
-170.054,-67.6167,82.6771
-88.8383,-66.9356,69.9514
-86.6696,-89.6911,87.5358
-171.76,-84.1336,100.703
-97.5107,-96.1044,97.2864
-173.303,-90.5469,109.394
580.77,-48.5548,-864.16
530.355,-16.6233,-908.591
545.223,-16.6233,-855.49
-1.3446,34.7158,97.7192
-6.58771,55.9117,109.113
-20.0859,67.7838,105.578
546.771,-47.8934,-944.189
530.355,-77.6891,-908.591
545.646,-75.7051,-854.981
-0.250732,-63.6329,97.5946
-7.54791,-89.6911,107.884
-21.5262,-96.1044,103.735
31.4697,33.615,93.9805
19.0281,-18.438,40.3217
44.1857,-19.5389,37.4553
33.6572,-68.0365,93.7313
-50.0116,12.0043,-26.9153
2.54919,12.0043,-10.2341
14.7878,-19.9272,-44.715
-70.7807,-19.2658,-60.1617
-50.0116,-49.0615,-26.9153
3.20624,-47.0774,-10.309
-13.6935,8.1782,-170.486
38.8673,8.1782,-153.805
51.106,-23.7533,-188.286
-34.4625,-23.092,-203.732
-13.6935,-52.8876,-170.486
39.5244,-50.9036,-153.88
22.4515,4.94323,-299.936
73.0766,4.94323,-278.073
88.7082,-26.9883,-311.154
5.11786,-26.3269,-335.096
22.4515,-56.1226,-299.936
73.7378,-54.1386,-278.081
93.5921,0.116764,-457.151
138.565,0.116764,-425.24
160.733,-31.8147,-454.348
83.9474,-31.1534,-495.146
93.5921,-60.949,-457.151
139.214,-58.965,-425.111
190.852,-4.25414,-583.117
243.036,-4.25414,-565.293
256.024,-36.1856,-599.498
170.813,-35.5243,-616.808
190.852,-65.3199,-583.117
243.695,-63.3359,-565.353
318.646,-9.92096,-762.284
350.584,-9.92096,-717.331
381.11,-41.8525,-737.503
322.068,-41.1911,-801.335
318.646,-70.9868,-762.284
351.154,-69.0027,-716.995
-242.307,-54.95,61.0943
-286.279,-18.0183,25.4465
-293.556,-47.4039,50.1447
-335.505,-18.0183,25.2191
-339.189,-40.5281,45.842
-388.453,-18.0183,22.5752
-387.56,-32.982,38.3645
-466.92,-18.0183,23.8459
-384.968,-43.0181,51.0458
-337.979,-52.456,56.5117
-316.094,-55.8939,61.0074
-272.072,-65.1274,73.0858
-223.387,-74.9563,86.5319
-247.699,-70.5879,81.2146
-292.781,-61.3543,65.4931
-242.307,21.368,61.0943
-293.556,13.8219,50.1447
-339.189,6.94614,45.842
-387.56,-0.599985,38.3645
-384.968,9.43609,51.0458
-337.979,18.874,56.5117
-316.094,22.3119,61.0074
-272.072,31.5454,73.0858
-223.387,41.3743,86.5319
-247.699,37.0059,81.2146
-292.781,27.7724,65.4931
-337.102,-54.2803,62.2445
-291.844,-65.2012,71.507
-248.865,-76.1221,87.5596
-215.094,-84.8589,95.6282
-337.102,20.6983,62.2445
-291.844,31.6192,71.507
-248.865,42.5401,87.5596
-215.094,51.2769,95.6282
